# .PCD v0.7 - Point Cloud Data file format
VERSION 0.7
FIELDS x y z rgba label
SIZE 4 4 4 4 4
TYPE F F F U U
COUNT 1 1 1 1 1
WIDTH 1096
HEIGHT 1
VIEWPOINT 0 0 0 1 0 0 0
POINTS 1096
DATA ascii
3.6134241 -0.009664 -0.47272101 12615680 22
3.7166841 0.0081010005 -0.47909501 12615680 12
2.5033779 0.016151 -0.47969899 12615680 22
2.5152631 0.016151 -0.47909501 12615680 22
2.5291929 0.0172315 -0.478782 12615680 22
2.5550079 0.016151 -0.47621 12615680 22
2.5808229 0.016151 -0.472009 12615680 22
2.9938641 0.016151 -0.470671 16777215 11
3.000886 0.016151 -0.473351 16777215 11
3.593771 0.016151 -0.47909501 12615680 22
3.6134241 0.016151 -0.47157899 12615680 22
3.6947801 0.016151 -0.47909501 6307840 12
3.723382 0.016151 -0.47909501 12615680 12
2.5550079 0.022097999 -0.47909501 12615680 22
2.5808229 0.029518001 -0.47909501 12615680 22
3.6908691 0.032744002 -0.47909501 6307840 12
2.6066926 0.041954327 -0.47910535 12615680 22
2.632453 0.0445095 -0.476437 12615680 22
3.0189941 0.042362332 -0.47938868 16777215 11
3.0454941 0.049077 -0.47909501 16777215 11
3.59075 0.041965999 -0.47909501 12615680 22
3.6134241 0.041965999 -0.47124001 12615680 22
3.6889219 0.041965999 -0.47909501 6307840 12
3.7287879 0.041965999 -0.47909501 12615680 12
2.658268 0.05508 -0.47909501 12615680 22
3.0713091 0.050914001 -0.47909501 16777215 11
3.0971241 0.055911001 -0.47909501 16777215 11
2.6789529 0.067781001 -0.47909501 12615680 22
2.684083 0.067781001 -0.47567499 12615680 22
3.1487539 0.069265999 -0.47909501 16777215 11
3.5876472 0.068011999 -0.47912002 12615680 22
3.681437 0.067781001 -0.47909501 6307840 12
3.7247651 0.067781001 -0.47909501 12615680 12
2.684083 0.070326 -0.47909501 12615680 22
2.709898 0.083287001 -0.47909501 12615680 22
2.735713 0.090977997 -0.47909501 12615680 22
2.7488019 0.093595996 -0.47909501 12615680 22
2.761528 0.095210001 -0.47730201 12615680 22
3.187803 0.093595996 -0.47909501 16777215 11
3.5865421 0.093595996 -0.47856998 12615680 22
3.6741531 0.093595996 -0.47909501 6307840 12
3.721715 0.093595996 -0.47909501 12615680 12
2.787344 0.109326 -0.47909501 12615680 22
3.2003839 0.105951 -0.47909501 16777215 11
3.7166841 0.107553 -0.47909501 12615680 12
2.8133771 0.119375 -0.47916734 12615680 22
2.838974 0.119411 -0.475005 12615680 22
2.864789 0.119411 -0.47180599 12615680 22
3.2093141 0.119411 -0.47909501 16777215 11
3.5863056 0.119411 -0.47850949 12615680 22
3.666522 0.119411 -0.475169 6307840 12
3.7077129 0.119411 -0.47909501 12615680 12
2.838974 0.123168 -0.47909501 12615680 22
2.864789 0.12763999 -0.47909501 12615680 22
2.890604 0.13217001 -0.47909501 12615680 22
2.916419 0.136454 -0.47909501 12615680 22
2.942234 0.141682 -0.47909501 12615680 22
2.9667835 0.145392 -0.47893366 12615680 22
2.9938641 0.1462855 -0.4781875 12615680 22
3.0196791 0.1455265 -0.478854 12615680 22
3.0244269 0.145226 -0.47909501 12615680 22
3.0454941 0.142694 -0.47909501 12615680 22
3.0713091 0.14158501 -0.47909501 12615680 22
3.0973065 0.14516567 -0.47933832 12615680 22
3.2151711 0.145226 -0.47909501 6307840 12
3.5863404 0.145226 -0.47858101 12615680 22
3.6650541 0.145226 -0.47450599 12615680 12
3.6874139 0.145226 -0.47909501 6307840 12
3.698328 0.145226 -0.47909501 12615680 12
3.1229391 0.15317 -0.47909501 12615680 22
3.1487539 0.157454 -0.47909501 12615680 22
3.1745689 0.15763199 -0.47909501 12615680 22
3.2003839 0.155131 -0.47909501 6307840 22
3.6908691 0.164643 -0.47909501 12615680 12
3.584769 0.171041 -0.4780235 12615680 22
3.6650541 0.171041 -0.47404 12615680 22
3.585077 0.19685601 -0.47784603 12615680 22
3.6392391 0.19685601 -0.47269201 12615680 22
3.6392391 0.20641901 -0.47909501 12615680 12
3.6134241 0.21958201 -0.47909501 6307840 12
3.587239 0.222672 -0.47868651 9461760 22
3.5906689 0.222672 -0.47909501 6307840 22
3.6525421 0.222672 -0.47909501 12615680 12
3.406904 0.230386 -0.47909501 12615680 22
3.432719 0.234969 -0.47909501 6307840 12
3.387296 0.248487 -0.47909501 12615680 3
3.4513509 0.248487 -0.47909501 6307840 12
3.5876091 0.24310701 -0.47909501 6307840 12
3.655587 0.248487 -0.47909501 5594190 12
3.381089 0.254428 -0.47909501 12615680 3
3.458534 0.25702101 -0.47909501 16777215 11
3.5876091 0.25361699 -0.47909501 6307840 12
3.6134241 0.26675099 -0.47909501 6307840 12
3.3470149 0.27430201 -0.47909501 12615680 3
3.355274 0.27272651 -0.477126 12615680 3
3.474154 0.27430201 -0.47909501 16777215 11
3.580169 0.27430201 -0.47909501 147595 12
3.63431 0.27430201 -0.47909501 6307840 12
3.647938 0.27430201 -0.47909501 8547117 12
3.329459 0.28260699 -0.47909501 12615680 3
3.484349 0.28316399 -0.47909501 16777215 11
3.6392391 0.28382301 -0.47909501 16524 12
3.312845 0.30011699 -0.47909501 16524 3
3.5081871 0.30011699 -0.47909501 16777215 11
3.510164 0.301265 -0.47909501 16777215 11
3.5636201 0.30215001 -0.47909501 16524 12
3.535979 0.31190601 -0.47909501 16777215 11
3.3105619 0.325932 -0.47909501 16524 3
3.308229 0.35174701 -0.47909501 16524 3
3.3060019 0.37756199 -0.47909501 16524 3
3.3039918 0.405687 -0.47909501 16524 3
3.2944081 0.42919201 -0.47909501 16524 3
3.2855849 0.45500699 -0.47909501 16524 3
3.2813711 0.480822 -0.47909501 16524 3
3.2778289 0.49783599 -0.47909501 16524 3
3.274518 0.50663698 -0.47535449 16524 3
3.262095 0.53245199 -0.47909501 16524 3
3.256917 0.558267 -0.47909501 16524 3
3.2520139 0.57564002 -0.47909501 16524 3
3.244885 0.58408201 -0.47909501 16524 3
3.2520139 0.58408201 -0.47219601 16524 3
3.234549 0.60989702 -0.47909501 16524 3
3.23227 0.63571203 -0.47909501 16524 3
3.236423 0.66152698 -0.47909501 16524 3
3.2520139 0.67656499 -0.47909501 16524 3
3.432719 0.67991698 -0.47909501 16777215 11
3.264009 0.68734199 -0.47909501 16524 3
3.406904 0.68296701 -0.47909501 16777215 11
3.458534 0.681032 -0.47909501 16777215 11
3.4835534 0.68762195 -0.47909501 16777215 11
3.2778289 0.69554698 -0.47909501 16524 3
3.355274 0.69594198 -0.47909501 16777215 11
3.3036439 0.701904 -0.47909501 16777215 11
3.329459 0.701132 -0.47909501 16777215 11
3.510164 0.70700401 -0.47909501 6307840 12
3.5155301 0.713157 -0.47909501 16524 12
3.531801 0.73897201 -0.47909501 16524 12
3.521395 0.76478702 -0.47909501 16524 12
3.515907 0.79060203 -0.47909501 16524 12
3.512893 0.81641698 -0.47909501 16524 12
3.510447 0.844513 -0.47909501 933258 12
3.4996481 0.868047 -0.47909501 3999103 12
3.4968469 0.89386201 -0.47909501 4194432 12
3.491585 0.91967702 -0.47909501 4194432 12
3.458534 0.93423301 -0.47909501 6307840 12
3.457238 0.94549203 -0.47909501 4194432 12
3.4657171 0.94549203 -0.47909501 6307840 12
3.4863479 0.94549203 -0.47909501 4194432 12
3.484349 0.96976799 -0.47909501 4194432 12
3.4581516 0.97192764 -0.47793302 4194432 12
3.4716611 0.99712199 -0.47909501 4194432 12
3.4677019 1.0229371 -0.47909501 4194432 12
3.432719 1.038519 -0.47909501 6307840 12
3.4319091 1.048752 -0.47909501 4194432 12
3.4460461 1.048752 -0.47909501 4194432 12
3.4595289 1.048752 -0.47909501 4194432 12
3.458534 1.052193 -0.47909501 4194432 12
3.4283681 1.074567 -0.47909501 4194432 12
3.4290531 1.100382 -0.47909501 4194432 12
3.432719 1.109266 -0.47909501 4194432 12
3.4360139 1.126197 -0.47909501 4194432 12
3.432719 1.141746 -0.47909501 4194432 12
3.406904 1.156512 -0.47909501 4194432 12
3.414722 1.152012 -0.47909501 4194432 12
3.403487 1.177827 -0.47909501 4194432 12
3.402385 1.203642 -0.47909501 4194432 12
3.3982179 1.229457 -0.47909501 4194432 12
3.3864501 1.255272 -0.47909501 4194432 12
3.3827579 1.281087 -0.47909501 4194432 12
3.381341 1.3069021 -0.47909501 4194432 12
3.381089 1.311289 -0.47909501 4194432 12
3.3792839 1.3327169 -0.47909501 4194432 12
3.3747211 1.358532 -0.47909501 4194432 12
1.135182 1.3694741 -0.47909501 16777215 11
1.151175 1.384347 -0.47909501 16777215 11
3.365736 1.384347 -0.47909501 4194432 12
3.360311 1.410162 -0.47909501 4194432 12
3.3570931 1.435977 -0.47909501 4194432 12
3.355274 1.4439009 -0.47909501 4194432 12
3.3508229 1.461792 -0.47909501 4194432 12
3.3466339 1.487607 -0.47909501 4194432 12
3.3423409 1.513422 -0.47909501 4194432 12
3.3365059 1.539237 -0.47909501 4194432 12
3.33413 1.565053 -0.47909501 4194432 12
3.3318141 1.590868 -0.47909501 4194432 12
3.329459 1.603862 -0.47909501 4194432 12
3.327178 1.616683 -0.47909501 4194432 12
3.3253729 1.642498 -0.47909501 4194432 12
2.890604 1.667025 -0.47909501 12615680 11
3.3216169 1.668313 -0.47909501 4194432 12
2.838974 1.681666 -0.47909501 16777215 11
2.829087 1.694128 -0.47909501 16777215 11
2.9432409 1.6929311 -0.47751567 6307840 11
3.318083 1.694128 -0.47909501 4194432 12
3.312515 1.719943 -0.47909501 4194432 12
2.8380678 1.7466177 -0.47798899 16777215 11
2.9429989 1.7465171 -0.47778067 16777215 11
3.3057821 1.7457581 -0.47909501 4194432 12
3.3036439 1.7518899 -0.47909501 4194432 12
2.890604 1.766477 -0.47909501 16777215 11
3.2970951 1.7715729 -0.47909501 4194432 12
3.289211 1.797388 -0.47909501 4194432 12
3.283762 1.823203 -0.47909501 4194432 12
3.2775145 1.8480265 -0.47909501 4194432 12
3.2686701 1.874833 -0.47909501 16777215 12
3.2629969 1.900648 -0.47909501 12615680 12
3.258163 1.926463 -0.47909501 12615680 12
3.2520139 1.944826 -0.47909501 4194432 12
3.248637 1.952278 -0.47909501 4194432 12
3.2358069 1.978093 -0.47909501 4194432 12
3.227973 2.0039079 -0.47909501 4194432 12
3.2261989 2.0124249 -0.47909501 4194432 12
3.2216411 2.0297229 -0.47909501 3808373 12
3.202482 2.0575995 -0.47909501 3744626 12
3.1745689 2.077662 -0.47909501 4194432 12
3.168931 2.0813529 -0.47909501 4194432 12
3.1487539 2.0975649 -0.47909501 4194432 12
3.138025 2.107168 -0.47909501 4194432 12
3.1229391 2.121325 -0.47909501 4194432 12
3.109545 2.132983 -0.47909501 4194432 12
3.0971241 2.144258 -0.47909501 3937144 12
3.0775249 2.158798 -0.47909501 16777215 11
3.0713091 2.1638989 -0.47909501 16777215 11
3.0454941 2.1844821 -0.47879952 16777215 11
3.015882 2.210428 -0.47909501 16777215 11
2.9938641 2.2289369 -0.47909501 16777215 11
2.519397 2.2670829 -0.47598901 16777215 11
2.9442539 2.2631884 -0.47909501 16777215 11
2.5808229 2.289052 -0.47909501 16777215 11
2.890604 2.286833 -0.47909501 16777215 11
2.787344 2.3088591 -0.47909501 16777215 11
2.684083 2.3129056 -0.47761852 16777215 11
2.038708 -1.093895 -0.46235901 12615680 22
2.038708 -1.042264 -0.463918 16777215 11
1.994113 -1.039181 -0.46773601 16777215 11
2.028898 -1.039181 -0.46890301 16777215 11
1.858003 -0.91318899 -0.46718401 12583040 12
1.9354481 -0.88737398 -0.46067601 6307840 12
1.987078 -0.86155897 -0.460926 12615680 22
1.909633 -0.83574402 -0.465462 16777215 11
1.9354481 -0.83574402 -0.46768099 6307840 12
1.9612629 -0.83574402 -0.464349 6307840 22
1.987078 -0.83574402 -0.465682 6307840 22
2.012893 -0.83574402 -0.462437 12615680 22
1.949921 -0.82709098 -0.46518001 6307840 22
1.987078 -0.80992901 -0.46972001 12615680 22
2.012893 -0.80992901 -0.46711099 12615680 22
2.038708 -0.80992901 -0.462639 12615680 22
2.064523 -0.80992901 -0.46007699 12615680 22
2.012893 -0.784114 -0.469594 12615680 22
2.038708 -0.784114 -0.467246 12615680 22
2.064523 -0.784114 -0.46437699 12615680 22
2.090338 -0.784114 -0.462515 12615680 22
2.116153 -0.784114 -0.46031001 12615680 22
1.9612629 -0.75829899 -0.46324199 12615680 22
2.038708 -0.75829899 -0.468135 12615680 22
2.064523 -0.75829899 -0.466703 12615680 22
2.090338 -0.75829899 -0.465269 12615680 22
2.116153 -0.75829899 -0.46325299 12615680 22
2.038708 -0.73248398 -0.46661699 12615680 22
2.064523 -0.73248398 -0.46742401 12615680 22
2.090338 -0.73248398 -0.467435 12615680 22
2.116153 -0.73248398 -0.465022 12615680 22
2.141968 -0.73248398 -0.46234599 12615680 22
2.167783 -0.73248398 -0.46048099 12615680 22
2.219413 -0.73248398 -0.460123 12615680 22
2.038708 -0.70666897 -0.46678799 12615680 22
2.064523 -0.70666897 -0.46810701 12615680 22
2.116153 -0.70666897 -0.46711999 12615680 22
2.141968 -0.70666897 -0.465321 12615680 22
2.167783 -0.70666897 -0.46678799 12615680 22
2.193598 -0.70666897 -0.46502799 12615680 22
1.9354481 -0.68085402 -0.46044701 6307840 22
2.038708 -0.68085402 -0.467608 12615680 22
2.064523 -0.68085402 -0.46886301 12615680 22
2.193598 -0.68085402 -0.46684501 12615680 22
2.219413 -0.68085402 -0.46177199 12615680 22
3.7683139 -0.68085402 -0.46405801 6571570 22
2.038708 -0.65503901 -0.468844 12615680 22
2.064523 -0.65503901 -0.46912 12615680 22
2.193598 -0.65503901 -0.465027 12615680 22
2.219413 -0.65503901 -0.460944 12615680 22
3.7683139 -0.65503901 -0.46303701 12615680 22
2.064523 -0.629224 -0.46972901 12615680 22
2.193598 -0.629224 -0.464641 12615680 22
3.7683139 -0.629224 -0.46880201 12615680 22
2.064523 -0.60340899 -0.46939501 12615680 22
2.090338 -0.60340899 -0.46839499 12615680 22
2.167783 -0.60340899 -0.46919 12615680 22
2.193598 -0.60340899 -0.46101701 12615680 22
3.7424991 -0.60340899 -0.46623901 6307840 22
2.064523 -0.57759398 -0.46977699 12615680 22
2.090338 -0.57759398 -0.468108 12615680 22
2.167783 -0.57759398 -0.465141 12615680 22
3.484349 -0.57759398 -0.468739 16777215 12
3.535979 -0.57759398 -0.46618 16777215 11
3.7424991 -0.57759398 -0.466952 6571570 19
1.728928 -0.55177897 -0.46565199 12615680 22
2.141968 -0.55177897 -0.46876201 12615680 22
2.167783 -0.55177897 -0.466921 12615680 22
2.193598 -0.55177897 -0.46435899 12615680 22
3.7424991 -0.55177897 -0.469675 6571570 22
2.116153 -0.52596402 -0.466986 12615680 22
2.141968 -0.52596402 -0.46539 12615680 22
2.167783 -0.52596402 -0.46888301 12615680 22
2.193598 -0.52596402 -0.46700999 12615680 22
2.219413 -0.52596402 -0.460031 12615680 22
3.5876091 -0.52596402 -0.462073 16777215 12
2.116153 -0.50014901 -0.46693099 12615680 22
2.141968 -0.50014901 -0.466232 12615680 22
2.167783 -0.50014901 -0.46910399 12615680 22
2.219413 -0.50014901 -0.46280301 12615680 22
2.116153 -0.474334 -0.46880299 12615680 22
2.141968 -0.474334 -0.46864501 12615680 22
2.219413 -0.474334 -0.462468 12615680 22
2.167783 -0.44851899 -0.46888199 12615680 22
2.193598 -0.44851899 -0.464479 12615680 22
2.167783 -0.42270401 -0.46461999 12615680 22
2.193598 -0.42270401 -0.46006301 12615680 22
3.1745689 -0.42270401 -0.467614 16777215 11
3.15903 -0.412747 -0.46352601 16777215 11
2.141968 -0.396889 -0.468346 12615680 22
2.167783 -0.396889 -0.46303099 12615680 22
2.193598 -0.396889 -0.46055201 12615680 22
3.1487539 -0.396889 -0.46952799 16777215 11
1.6772979 -0.37107399 -0.46632501 12615680 22
2.012893 -0.37107399 -0.46243399 6307840 22
2.141968 -0.37107399 -0.466764 12615680 22
2.167783 -0.37107399 -0.46292701 12615680 22
2.193598 -0.37107399 -0.46081701 12615680 22
3.1229391 -0.37107399 -0.460897 16777215 11
3.6134241 -0.37107399 -0.46344799 12615680 22
2.141968 -0.34525901 -0.466212 12615680 22
2.167783 -0.34525901 -0.462069 12615680 22
2.193598 -0.34525901 -0.460224 12615680 22
2.219413 -0.34525901 -0.46019799 12615680 22
3.6134241 -0.34525901 -0.46392 12615680 22
2.116153 -0.319444 -0.46931601 12615680 22
2.141968 -0.319444 -0.46541801 12615680 22
2.167783 -0.319444 -0.46237001 12615680 22
2.193598 -0.319444 -0.46131501 12615680 22
2.219413 -0.319444 -0.461169 12615680 22
2.2452281 -0.319444 -0.46041599 12615680 22
3.6134241 -0.319444 -0.46359801 12615680 22
2.116153 -0.29362899 -0.46699199 12615680 22
2.141968 -0.29362899 -0.46447 12615680 22
2.167783 -0.29362899 -0.46322501 12615680 22
2.193598 -0.29362899 -0.46204999 12615680 22
2.219413 -0.29362899 -0.462084 12615680 22
2.2452281 -0.29362899 -0.462437 12615680 22
2.2710431 -0.29362899 -0.46150899 12615680 22
3.6134241 -0.29362899 -0.466923 12615680 22
3.6392391 -0.29362899 -0.463036 12615680 22
2.090338 -0.26781401 -0.46987599 12615680 22
2.116153 -0.26781401 -0.46506599 12615680 22
2.141968 -0.26781401 -0.46463299 12615680 22
2.167783 -0.26781401 -0.46372101 12615680 22
2.193598 -0.26781401 -0.462908 12615680 22
2.219413 -0.26781401 -0.46389601 12615680 22
2.2452281 -0.26781401 -0.46409401 12615680 22
2.2710431 -0.26781401 -0.46351001 12615680 22
2.2968581 -0.26781401 -0.46190101 12615680 22
2.3226731 -0.26781401 -0.46067199 12615680 22
2.3484881 -0.26781401 -0.46016401 12615680 22
3.0713091 -0.26781401 -0.46680301 16777215 11
3.6134241 -0.26781401 -0.46915901 12615680 22
3.6392391 -0.26781401 -0.464095 12615680 22
2.090338 -0.241999 -0.467123 12615680 22
2.116153 -0.241999 -0.463808 12615680 22
2.141968 -0.241999 -0.46384001 12615680 22
2.167783 -0.241999 -0.46340299 12615680 22
2.193598 -0.241999 -0.46477199 12615680 22
2.219413 -0.241999 -0.46758601 12615680 22
2.2452281 -0.241999 -0.46608999 12615680 22
2.2710431 -0.241999 -0.464908 12615680 22
2.2968581 -0.241999 -0.46416301 12615680 22
2.3226731 -0.241999 -0.462607 12615680 22
2.3484881 -0.241999 -0.46191499 12615680 22
3.6392391 -0.241999 -0.464432 12615680 22
1.625668 -0.21618401 -0.46026599 12615680 22
2.090338 -0.21618401 -0.46657401 12615680 22
2.116153 -0.21618401 -0.46507299 12615680 22
2.141968 -0.21618401 -0.46170899 12615680 22
2.167783 -0.21618401 -0.464573 12615680 22
2.193598 -0.21618401 -0.46845701 12615680 22
2.2452281 -0.21618401 -0.468281 12615680 22
2.2710431 -0.21618401 -0.46681401 12615680 22
2.2968581 -0.21618401 -0.466221 12615680 22
2.3226731 -0.21618401 -0.46513399 12615680 22
2.3484881 -0.21618401 -0.46357599 12615680 22
2.3743031 -0.21618401 -0.462069 12615680 22
2.4001181 -0.21618401 -0.460237 12615680 22
3.0454941 -0.21618401 -0.462881 16777215 11
3.6392391 -0.21618401 -0.46612501 12615680 22
2.064523 -0.190369 -0.46596801 6307840 22
2.2710431 -0.190369 -0.46979901 12615680 22
2.2968581 -0.190369 -0.46773699 12615680 22
2.3226731 -0.190369 -0.466903 12615680 22
2.3484881 -0.190369 -0.46594101 12615680 22
2.3743031 -0.190369 -0.46407199 12615680 22
2.4001181 -0.190369 -0.46254 12615680 22
2.4259329 -0.190369 -0.46051201 12615680 22
3.6392391 -0.190369 -0.46723899 12615680 22
2.054889 -0.17471001 -0.467309 12615680 22
2.0254121 -0.164937 -0.46874201 12615680 22
2.038708 -0.164554 -0.46904299 12615680 22
2.3226731 -0.164554 -0.468638 12615680 22
2.3484881 -0.164554 -0.46798801 12615680 22
2.3743031 -0.164554 -0.46607199 12615680 22
2.4001181 -0.164554 -0.46334499 12615680 22
2.4259329 -0.164554 -0.46160799 12615680 22
2.4517479 -0.164554 -0.46071899 12615680 22
3.6392391 -0.164554 -0.46593899 12615680 22
2.0120261 -0.149287 -0.468052 6307840 22
2.012893 -0.138739 -0.46490401 12615680 22
2.038708 -0.138739 -0.46338999 12615680 22
2.064523 -0.138739 -0.46528399 6307840 22
2.3484881 -0.138739 -0.46994901 12615680 22
2.3743031 -0.138739 -0.46898401 12615680 22
2.4001181 -0.138739 -0.46587601 12615680 22
2.4259329 -0.138739 -0.46310401 12615680 22
2.4517479 -0.138739 -0.46197 12615680 22
3.0196791 -0.138739 -0.46603 16777215 11
3.6392391 -0.138739 -0.46149799 12615680 22
2.012893 -0.112924 -0.460455 12615680 22
2.064523 -0.112924 -0.46175799 12615680 22
2.4001181 -0.112924 -0.469459 12615680 22
2.4259329 -0.112924 -0.465159 12615680 22
2.4517479 -0.112924 -0.46286201 12615680 22
2.4775629 -0.112924 -0.46089101 12615680 22
3.6392391 -0.112924 -0.46066201 12615680 22
2.090338 -0.087108999 -0.46948099 12615680 22
2.4517479 -0.087108999 -0.466656 12615680 22
2.4775629 -0.087108999 -0.464838 12615680 22
2.5033779 -0.087108999 -0.462331 12615680 22
2.5291929 -0.087108999 -0.46033201 12615680 22
3.6392391 -0.087108999 -0.46037301 12615680 22
2.5033779 -0.061294001 -0.467237 12615680 22
2.5291929 -0.061294001 -0.46413901 12615680 22
2.5550079 -0.061294001 -0.461826 12615680 22
3.6392391 -0.061294001 -0.461487 12615680 22
2.5291929 -0.035479002 -0.46736199 12615680 22
2.5550079 -0.035479002 -0.46452299 12615680 22
2.5808229 -0.035479002 -0.46119401 12615680 22
2.9938641 -0.035479002 -0.46234599 16777215 11
3.7166841 -0.035479002 -0.46345299 12615680 22
2.5550079 -0.009664 -0.46816 12615680 22
2.5808229 -0.009664 -0.462852 12615680 22
2.606638 -0.009664 -0.46105301 12615680 22
2.9938641 -0.009664 -0.468357 16777215 11
2.606638 0.016151 -0.46627599 12615680 22
2.632453 0.016151 -0.46353701 12615680 22
3.6908691 0.016151 -0.46988699 6307840 12
2.658268 0.041965999 -0.467246 12615680 22
2.684083 0.041965999 -0.46000999 12615680 22
2.968049 0.041965999 -0.460237 12615680 19
2.9938641 0.041965999 -0.46953699 16777215 11
2.709898 0.067781001 -0.46269101 12615680 22
2.942234 0.067781001 -0.46004999 12615680 22
2.968049 0.067781001 -0.46164301 12615680 22
2.9938641 0.067781001 -0.46472701 16777215 11
3.0196791 0.067781001 -0.46464601 16777215 11
3.0454941 0.067781001 -0.46101901 16777215 11
3.6134241 0.067781001 -0.46902201 12615680 22
3.6650541 0.067781001 -0.46051601 6307840 12
3.1655569 0.08873 -0.46304101 16777215 11
2.787344 0.093595996 -0.465624 12615680 22
2.916419 0.093595996 -0.460958 12615680 22
2.942234 0.093595996 -0.462275 12615680 22
2.968049 0.093595996 -0.461555 12615680 22
2.9938641 0.093595996 -0.461624 12615680 22
3.0196791 0.093595996 -0.46013001 12615680 22
3.6134241 0.093595996 -0.46741199 12615680 22
3.6650541 0.093595996 -0.46700999 6307840 12
3.7166841 0.093595996 -0.46830699 12615680 12
2.890604 0.119411 -0.46866599 12615680 22
2.916419 0.119411 -0.46725801 12615680 22
2.942234 0.119411 -0.46575001 12615680 22
2.968049 0.119411 -0.463716 12615680 22
2.9938641 0.119411 -0.46356899 12615680 22
3.0196791 0.119411 -0.464104 12615680 22
3.0454941 0.119411 -0.46231699 12615680 22
3.2003839 0.119411 -0.46568799 16777215 11
3.6134241 0.119411 -0.46665701 12615680 22
3.6392391 0.119411 -0.46366999 6307840 22
3.1229391 0.145226 -0.46814901 12615680 22
3.1487539 0.145226 -0.46403399 12615680 22
3.1745689 0.145226 -0.46473899 12615680 22
3.2003839 0.145226 -0.467785 6307840 12
3.6134241 0.145226 -0.46290001 12615680 22
3.6392391 0.145226 -0.46237001 6307840 12
3.6810119 0.155376 -0.466818 12615680 12
3.6134241 0.171041 -0.461355 12615680 22
3.6392391 0.171041 -0.463137 6307840 12
3.6134241 0.19685601 -0.467134 12615680 22
3.6650541 0.19685601 -0.46438 12615680 22
3.406904 0.248487 -0.46472499 12615680 22
3.432719 0.248487 -0.467363 6307840 12
3.381089 0.27430201 -0.46040601 12615680 3
3.458534 0.27430201 -0.461485 16777215 11
3.329459 0.30011699 -0.462652 16524 3
3.3036439 0.42919201 -0.465671 16524 3
3.484349 0.68734199 -0.46619299 6307840 12
3.458534 0.94549203 -0.464847 6307840 12
1.135182 1.384347 -0.46670601 16777215 11
3.329459 1.616683 -0.46382999 4194432 12
2.838974 1.694128 -0.468265 16777215 11
3.2778289 1.849018 -0.46855199 4194432 12
2.787344 2.313688 -0.46765399 16777215 11
2.077466 -1.721105 -0.45327899 16777215 11
2.088212 -1.713455 -0.45327899 16777215 11
2.090338 -1.710897 -0.45327899 16777215 11
2.1021731 -1.68764 -0.45327899 12615680 22
2.1041191 -1.6618249 -0.45327899 12615680 22
2.0994611 -1.6360101 -0.45327899 12615680 22
2.094038 -1.610195 -0.45327899 12615680 22
2.0894511 -1.58438 -0.45327899 12615680 22
2.090338 -1.589357 -0.45327899 12615680 22
2.0846879 -1.558565 -0.45327899 12615680 22
2.080447 -1.53275 -0.45327899 12615680 22
2.073247 -1.506935 -0.45327899 12615680 22
2.0645049 -1.4811786 -0.45321432 12615680 22
2.058646 -1.455305 -0.45327899 12615680 22
2.0542159 -1.42949 -0.45327899 12615680 22
2.0480709 -1.403675 -0.45327899 12615680 22
2.041225 -1.37786 -0.45327899 12615680 22
2.038708 -1.37 -0.45327899 12615680 22
2.0331559 -1.3520451 -0.45327899 12615680 22
2.0261481 -1.32623 -0.45327899 12615680 22
2.019845 -1.300415 -0.45327899 12615680 22
2.0151169 -1.2746 -0.45327899 12615680 22
2.012893 -1.257847 -0.45327899 12615680 22
2.0114319 -1.248785 -0.45327899 12615680 22
2.004329 -1.22297 -0.45327899 12615680 22
1.997491 -1.197155 -0.45327899 12615680 22
1.991577 -1.17134 -0.45327899 12615680 22
1.987078 -1.158806 -0.45327899 12615680 22
1.982105 -1.145525 -0.45327899 12615680 22
1.977373 -1.11971 -0.45327899 12615680 22
1.987078 -1.107392 -0.45327899 12615680 22
2.012893 -1.100108 -0.45327899 12615680 22
2.029598 -1.093895 -0.45327899 12615680 22
2.038708 -1.084004 -0.45327899 6307840 22
1.892423 -1.076992 -0.459842 16777215 11
1.909633 -1.07831 -0.45327899 16777215 11
1.9354481 -1.071406 -0.45327899 16777215 11
1.9354481 -1.068079 -0.45756999 16777215 11
1.945033 -1.068079 -0.45327899 16777215 11
1.9612629 -1.060482 -0.45327899 16777215 11
2.045732 -1.068079 -0.45327899 6307840 22
1.987078 -1.0440965 -0.4562645 16777215 11
2.012893 -1.0423245 -0.45339102 16777215 11
2.038708 -1.0483119 -0.45327899 16777215 11
1.816888 -1.012762 -0.45327899 16777215 11
1.818293 -0.99063402 -0.45327899 16777215 11
1.829179 -0.96481901 -0.45327899 12615680 22
1.8321694 -0.93894601 -0.45350036 12596553 22
1.851985 -0.91318899 -0.45327899 12583040 12
1.858003 -0.90758198 -0.45327899 12615680 22
1.8847284 -0.88773966 -0.45314834 8410368 22
1.909633 -0.88737398 -0.455538 6307840 22
1.9354481 -0.87087202 -0.45327899 6307840 22
1.9612629 -0.876513 -0.45327899 6307840 12
1.987078 -0.87839502 -0.45327899 12615680 22
2.012893 -0.87570602 -0.45327899 12615680 22
1.883818 -0.86155897 -0.45125499 6307840 22
1.897625 -0.86155897 -0.45327899 6307840 22
1.909633 -0.86155897 -0.45384601 6307840 22
1.926403 -0.86155897 -0.45327899 16777215 11
1.9354481 -0.86155897 -0.45192301 6307840 22
2.012893 -0.86155897 -0.45723599 12615680 22
2.024863 -0.86155897 -0.45327899 12615680 22
2.090338 -0.86155897 -0.45078301 12221956 22
2.090338 -0.85022998 -0.45327899 12615680 22
2.116153 -0.85008001 -0.45327899 12615680 22
1.883818 -0.84739798 -0.45327899 6307840 22
1.9354481 -0.849145 -0.45327899 6307840 22
2.038708 -0.84503001 -0.45327899 12615680 22
1.8769 -0.83574402 -0.45327899 12615680 22
1.883818 -0.83574402 -0.456976 12615680 22
1.950752 -0.83574402 -0.45327899 6307840 22
2.038708 -0.83574402 -0.45630601 12615680 22
2.064523 -0.83744097 -0.453933 7955250 22
2.090338 -0.83574402 -0.45582801 12615680 22
2.116153 -0.83574402 -0.455414 12615680 22
2.1296401 -0.83574402 -0.45327899 12615680 22
2.141968 -0.83574402 -0.450313 12615680 22
1.858003 -0.82303298 -0.45327899 16777215 11
2.141968 -0.82392198 -0.45327899 12615680 22
1.832188 -0.81318599 -0.45327899 16777215 11
2.167783 -0.81253803 -0.45327899 12615680 22
2.193598 -0.81110001 -0.45327899 12615680 22
2.219413 -0.81265402 -0.45327899 12615680 22
1.806373 -0.80204898 -0.45327899 12615680 22
1.8236459 -0.80992901 -0.45327899 16777215 11
1.832188 -0.80992901 -0.45818999 16777215 11
1.958033 -0.80992901 -0.45327899 6307840 22
1.9612629 -0.80992901 -0.459483 6307840 22
2.090338 -0.80992901 -0.458846 12615680 22
2.116153 -0.80992901 -0.45732701 12615680 22
2.141968 -0.80992901 -0.45552799 12615680 22
2.167783 -0.80992901 -0.45396 12615680 22
2.193598 -0.80992901 -0.45361501 12615680 22
2.219413 -0.80992901 -0.453839 12615680 22
2.244909 -0.80984896 -0.45326233 12615680 22
2.3226731 -0.80208802 -0.45327899 12615680 22
1.9612629 -0.79470599 -0.45327899 6307840 22
2.2710431 -0.79919398 -0.45327899 12615680 22
2.2968581 -0.79687703 -0.45327899 12615680 22
1.7823009 -0.78264749 -0.45327899 12615680 22
1.9621381 -0.784114 -0.45327899 6307840 22
2.141968 -0.784114 -0.45683101 12615680 22
2.167783 -0.784114 -0.45553601 12615680 22
2.193598 -0.784114 -0.45607001 12615680 22
2.219413 -0.784114 -0.45698199 12615680 22
2.2452281 -0.784114 -0.456229 12615680 22
2.2710431 -0.784114 -0.456177 12615680 22
2.2968581 -0.784114 -0.45577601 12615680 22
2.3226731 -0.784114 -0.45756999 12615680 22
2.331501 -0.784114 -0.45327899 12615680 22
1.9612629 -0.770105 -0.45327899 6307840 22
2.3226731 -0.77446198 -0.45327899 12615680 22
2.2968581 -0.76384598 -0.45327899 12615680 22
1.763034 -0.75829899 -0.45327899 12615680 22
1.958564 -0.75829899 -0.45327899 6307840 22
2.141968 -0.75829899 -0.45962301 12615680 22
2.167783 -0.75829899 -0.45742899 12615680 22
2.193598 -0.75829899 -0.45746699 12615680 22
2.219413 -0.75829899 -0.45904401 12615680 22
2.2452281 -0.75829899 -0.45938799 12615680 22
2.2710431 -0.75829899 -0.45868 12615680 22
2.2893989 -0.75829899 -0.45327899 12615680 22
2.2968581 -0.75829899 -0.45025599 12615680 22
1.754743 -0.74639899 -0.45327899 12615680 22
1.751886 -0.73248398 -0.45327899 12615680 22
1.948544 -0.73248398 -0.45327899 6307840 22
2.193598 -0.73248398 -0.45924801 12615680 22
2.2452281 -0.73248398 -0.45965299 12615680 22
2.274735 -0.73248398 -0.455033 12615680 22
1.754743 -0.71988398 -0.45327899 12615680 22
2.2710431 -0.71515399 -0.45327899 12615680 22
1.763472 -0.70666897 -0.45327899 12615680 22
1.942058 -0.70666897 -0.45327899 6307840 22
2.219413 -0.70666897 -0.45954999 12615680 22
2.2452281 -0.70666897 -0.45809901 12615680 22
2.2659769 -0.70666897 -0.45327899 12615680 22
2.2710431 -0.70666897 -0.451038 12615680 22
1.764625 -0.68085402 -0.45327899 12615680 22
1.9343815 -0.68403852 -0.45327899 6307840 22
2.2452281 -0.68085402 -0.45765001 12615680 22
2.255271 -0.68085402 -0.45327899 12615680 22
2.2452281 -0.66170502 -0.45327899 12615680 22
1.7547897 -0.65489537 -0.45317066 12615680 22
1.924861 -0.65503901 -0.45327899 6307840 22
2.2437291 -0.65503901 -0.45229948 12615680 22
1.748451 -0.629224 -0.45327899 12615680 22
1.919152 -0.629224 -0.45327899 6307840 22
2.219413 -0.629224 -0.45653799 12615680 22
2.235044 -0.629224 -0.45327899 12615680 22
1.741559 -0.60340899 -0.45327899 12615680 22
1.911117 -0.60340899 -0.45327899 6307840 22
2.219413 -0.60340899 -0.455437 12615680 22
2.233835 -0.60340899 -0.45327899 12615680 22
2.2452281 -0.60340899 -0.450757 12615680 22
3.484349 -0.582973 -0.45327899 16777215 11
3.510164 -0.587524 -0.45327899 16777215 11
3.535979 -0.58454698 -0.45327899 16777215 11
1.733669 -0.57759398 -0.45327899 12615680 22
1.9092381 -0.57691574 -0.45472175 6307840 22
2.193598 -0.57759398 -0.45907301 12615680 22
2.219413 -0.57759398 -0.45715001 12615680 22
2.232239 -0.57759398 -0.45327899 12615680 22
3.458534 -0.57421201 -0.45327899 16777215 11
3.4674051 -0.57759398 -0.45327899 16777215 11
3.5522809 -0.57759398 -0.45327899 16777215 11
3.561794 -0.572119 -0.45327899 16777215 11
1.728928 -0.56481498 -0.45327899 12615680 22
3.432719 -0.562962 -0.45327899 16777215 11
1.724659 -0.55177897 -0.45327899 12615680 22
1.926334 -0.55177897 -0.45327899 6307840 22
2.219413 -0.55177897 -0.457656 12615680 22
2.239877 -0.55177897 -0.45327899 12615680 22
2.2452281 -0.55177897 -0.451395 12615680 22
3.4073124 -0.55159193 -0.45266166 16777215 11
3.58529 -0.55177897 -0.4516955 16777215 11
1.9354481 -0.54167998 -0.45327899 6307840 22
2.2452281 -0.541246 -0.45327899 12615680 22
3.5876091 -0.54209602 -0.45327899 16777215 11
3.381089 -0.53953099 -0.45327899 16777215 11
1.717136 -0.52596402 -0.45327899 12615680 22
1.948717 -0.52596402 -0.45327899 6307840 22
2.2452281 -0.52596402 -0.45459199 12615680 22
2.257596 -0.52596402 -0.45327899 12615680 22
2.2710431 -0.52596402 -0.451175 12615680 22
3.3544149 -0.52638966 -0.45482302 16777215 11
3.5925009 -0.52596402 -0.45327899 12615680 22
3.329459 -0.514171 -0.45327899 16777215 11
1.7091449 -0.50014901 -0.45327899 12615680 22
1.961507 -0.50065303 -0.45327899 6307840 22
2.2452281 -0.50014901 -0.45555201 12615680 22
2.2647929 -0.50014901 -0.45327899 12615680 22
2.2710431 -0.50014901 -0.452191 12615680 22
3.2994771 -0.50014901 -0.45327899 16777215 11
3.3036439 -0.50111401 -0.45642149 16777215 11
3.5999169 -0.50014901 -0.45327899 12615680 12
1.703113 -0.48031801 -0.45327899 12615680 22
2.2710431 -0.48488399 -0.45327899 12615680 22
3.2778289 -0.48936799 -0.45327899 16777215 11
1.7023234 -0.474334 -0.4551115 12615680 22
1.9756711 -0.474334 -0.45327899 6307840 22
2.2452281 -0.474334 -0.45640799 12615680 22
2.273123 -0.474334 -0.45345151 12615680 22
2.2968581 -0.474334 -0.45008099 12615680 22
3.2486119 -0.474334 -0.45327899 16777215 11
3.2520139 -0.47516 -0.45559999 16777215 11
3.6135199 -0.47457933 -0.45338634 12615680 22
3.2261989 -0.46288601 -0.45327899 16777215 11
1.987078 -0.452086 -0.45327899 6307840 22
1.6941381 -0.44851899 -0.45327899 12615680 22
1.988842 -0.44851899 -0.45327899 6307840 22
2.219413 -0.44851899 -0.45996901 12615680 22
2.2452281 -0.44851899 -0.456801 12615680 22
2.2710431 -0.44851899 -0.454312 12615680 22
2.2852061 -0.44851899 -0.45327899 12615680 22
2.2968581 -0.44851899 -0.451747 12615680 22
3.198379 -0.44851899 -0.45327899 16777215 11
3.2003839 -0.44906449 -0.45421648 16777215 11
3.6155181 -0.44851899 -0.45477149 12615680 22
2.2968581 -0.43377399 -0.45327899 12615680 22
3.1745689 -0.43265501 -0.45327899 16777215 11
1.686875 -0.42270401 -0.45327899 12615680 22
1.994197 -0.42270401 -0.45327899 6307840 22
2.219413 -0.42270401 -0.45854801 12615680 22
2.2452281 -0.42270401 -0.45670399 12615680 22
2.2710431 -0.42270401 -0.455109 12615680 22
2.2968581 -0.42270401 -0.45384699 12615680 22
2.312619 -0.42270401 -0.45327899 12615680 22
2.3226731 -0.42270401 -0.45244199 12615680 22
2.3484881 -0.42270401 -0.45076299 12615680 22
3.162148 -0.42270401 -0.45327899 16777215 11
3.6134241 -0.42270401 -0.45799899 12615680 22
3.6247489 -0.42270401 -0.45327899 12615680 22
3.6392391 -0.42270401 -0.45068201 12615680 22
2.3226731 -0.41705799 -0.45327899 12615680 22
3.1487539 -0.41021401 -0.45327899 16777215 11
2.3484881 -0.402289 -0.45327899 12615680 22
1.681428 -0.396889 -0.45327899 12615680 22
1.997193 -0.396889 -0.45327899 6307840 22
2.219413 -0.396889 -0.45836601 12615680 22
2.2452281 -0.396889 -0.45680201 12615680 22
2.2710431 -0.396889 -0.456157 12615680 22
2.2968581 -0.396889 -0.45498499 12615680 22
2.3226731 -0.396889 -0.45423701 12615680 22
2.3484881 -0.396889 -0.453538 12615680 22
2.3753603 -0.39706233 -0.45329165 12615680 22
2.4001181 -0.396889 -0.45168701 12615680 22
3.136447 -0.396889 -0.45327899 16777215 11
3.6134241 -0.396889 -0.459822 12615680 22
3.6357427 -0.396889 -0.45271301 12615680 22
1.6772979 -0.385364 -0.45327899 12615680 22
2.4001181 -0.389025 -0.45327899 12615680 22
3.6392391 -0.38298899 -0.45327899 12615680 22
1.672734 -0.37107399 -0.45327899 12615680 22
2.0122099 -0.37107399 -0.45327899 6307840 22
2.219413 -0.37107399 -0.45930499 12615680 22
2.2452281 -0.37107399 -0.45777699 12615680 22
2.2710431 -0.37107399 -0.45685601 12615680 22
2.2968581 -0.37107399 -0.45605701 12615680 22
2.3226731 -0.37107399 -0.45524999 12615680 22
2.3484881 -0.37107399 -0.454748 12615680 22
2.3743031 -0.37107399 -0.45417401 12615680 22
2.4030356 -0.37107399 -0.45408398 12615680 22
3.117198 -0.37107399 -0.45327899 16777215 11
3.1229391 -0.37932301 -0.45327899 16777215 11
3.6392391 -0.37107399 -0.45523599 12615680 22
3.645509 -0.37107399 -0.45327899 12615680 22
2.012893 -0.36988899 -0.45327899 6307840 22
3.1077261 -0.35082501 -0.45993301 16777215 11
1.665382 -0.34525901 -0.45327899 12615680 22
2.0262179 -0.34525901 -0.45327899 6307840 22
2.2452281 -0.34525901 -0.45903301 12615680 22
2.2710431 -0.34525901 -0.45775899 12615680 22
2.2968581 -0.34525901 -0.457032 12615680 22
2.3226731 -0.34525901 -0.45627499 12615680 22
2.3484881 -0.34525901 -0.45571399 12615680 22
2.3743031 -0.34525901 -0.45484799 12615680 22
2.4038725 -0.34525901 -0.45488849 12615680 22
3.6392391 -0.34525901 -0.45686701 12615680 22
3.6514781 -0.34525901 -0.45327899 12615680 22
3.0971241 -0.33815801 -0.45327899 16777215 11
1.6531096 -0.319444 -0.45225698 9461760 22
2.031924 -0.319444 -0.45327899 6307840 22
2.2710431 -0.319444 -0.459232 12615680 22
2.2968581 -0.319444 -0.45827499 12615680 22
2.3226731 -0.319444 -0.45741299 12615680 22
2.3484881 -0.319444 -0.456561 12615680 22
2.3743031 -0.319444 -0.45591599 12615680 22
2.4034152 -0.319444 -0.4549365 12615680 22
3.0874839 -0.319444 -0.45327899 16777215 11
3.6392391 -0.319444 -0.45904699 12615680 22
3.6576509 -0.319444 -0.45327899 12615680 22
3.6650541 -0.319444 -0.45081201 12615680 22
1.6514831 -0.30897 -0.45327899 12615680 22
1.648994 -0.29362899 -0.45327899 12615680 22
1.6514831 -0.29362899 -0.45813 12615680 22
2.029814 -0.29362899 -0.45327899 6307840 22
2.2968581 -0.29362899 -0.45998001 12615680 22
2.3226731 -0.29362899 -0.45887601 12615680 22
2.3484881 -0.29362899 -0.457977 12615680 22
2.3743031 -0.29362899 -0.457138 12615680 22
2.4024305 -0.29362899 -0.45467699 12615680 22
3.0750771 -0.29362899 -0.45327899 16777215 11
3.6626687 -0.29362899 -0.4523735 12615680 22
3.0713091 -0.28551799 -0.45327899 16777215 11
1.6431299 -0.26781401 -0.45327899 12615680 22
2.031271 -0.26781401 -0.45327899 6307840 22
2.3743031 -0.26781401 -0.45818099 12615680 22
2.4022427 -0.26781401 -0.45446301 12615680 22
3.0632679 -0.26781401 -0.45327899 16777215 11
3.663703 -0.26781401 -0.452815 12615680 22
1.6345789 -0.241999 -0.45327899 12615680 22
2.0373549 -0.241999 -0.45327899 6307840 22
2.3743031 -0.241999 -0.459723 12615680 22
2.4001181 -0.241999 -0.456604 12615680 22
2.4130189 -0.241999 -0.45327899 12615680 22
3.0559101 -0.24708 -0.45959899 16777215 11
3.663532 -0.241999 -0.45274401 12615680 22
2.038708 -0.23908199 -0.45327899 12615680 22
2.4259329 -0.233438 -0.45327899 12615680 22
3.0454941 -0.231013 -0.45327899 16777215 11
1.625668 -0.226907 -0.45327899 12615680 22
2.4517479 -0.225761 -0.45327899 12615680 22
2.4775629 -0.221018 -0.45327899 12615680 22
1.622674 -0.21618401 -0.45327899 12615680 22
2.062438 -0.21467251 -0.45327899 12615680 22
2.4259329 -0.21618401 -0.459535 12615680 22
2.4517479 -0.21618401 -0.458902 12615680 22
2.4775629 -0.21618401 -0.45655 12615680 22
2.5027618 -0.21581334 -0.45257333 12615680 22
3.0384679 -0.21618401 -0.45327899 16777215 11
3.6575301 -0.21618401 -0.45327899 12615680 22
3.6650541 -0.21618401 -0.45068899 12615680 22
2.5291929 -0.20157599 -0.45327899 12615680 22
1.618838 -0.190369 -0.45327899 12615680 22
2.038708 -0.190369 -0.450239 12615680 22
2.064523 -0.190369 -0.452463 12615680 22
2.0728071 -0.190369 -0.45327899 12615680 22
2.4517479 -0.190369 -0.459126 12615680 22
2.4775629 -0.190369 -0.45826301 12615680 22
2.5033779 -0.190369 -0.45776001 12615680 22
2.5291929 -0.190369 -0.45772099 12615680 22
2.5550079 -0.1929525 -0.4551225 12615680 22
2.5792539 -0.190369 -0.45327899 12615680 22
2.5808229 -0.190369 -0.45155799 12615680 22
3.027586 -0.190369 -0.45327899 16777215 11
3.6565139 -0.190369 -0.45327899 12615680 22
2.5808229 -0.188546 -0.45327899 12615680 22
2.064523 -0.175745 -0.45327899 12615680 22
2.606638 -0.17225 -0.45327899 12615680 22
1.6267281 -0.165666 -0.45327899 12615680 22
2.012893 -0.164554 -0.45124999 12615680 22
2.03653 -0.1655125 -0.45327899 12615680 22
2.4775629 -0.164554 -0.45943999 12615680 22
2.5033779 -0.164554 -0.45815 12615680 22
2.5291929 -0.164554 -0.45661101 12615680 22
2.5550079 -0.164554 -0.45568001 12615680 22
2.5808229 -0.164554 -0.455841 12615680 22
2.606638 -0.164554 -0.455668 12615680 22
2.633235 -0.16482633 -0.45343968 12615680 22
3.0190582 -0.16630833 -0.45400396 16777215 11
3.6556311 -0.164554 -0.45327899 12615680 22
1.6514831 -0.156909 -0.45327899 12615680 22
1.6772979 -0.15369 -0.45327899 12615680 22
1.703113 -0.15154199 -0.45327899 12615680 22
1.728928 -0.148155 -0.45327899 12615680 22
2.012893 -0.145209 -0.45327899 12615680 22
1.7558484 -0.1391595 -0.45327899 12615680 22
1.780558 -0.13474201 -0.45327899 12615680 22
1.832188 -0.138739 -0.45062199 12615680 22
1.858003 -0.138739 -0.45036799 12615680 22
1.987078 -0.138739 -0.4508 12615680 22
2.0079949 -0.138739 -0.45327899 12615680 22
2.4775629 -0.138739 -0.45989501 12615680 22
2.5033779 -0.138739 -0.45837501 12615680 22
2.5291929 -0.138739 -0.45731801 12615680 22
2.5550079 -0.138739 -0.456588 12615680 22
2.5808229 -0.138739 -0.45585901 12615680 22
2.606638 -0.138739 -0.454761 12615680 22
2.632453 -0.138739 -0.45363 12615680 22
2.6411729 -0.138739 -0.45327899 12615680 22
2.658268 -0.138739 -0.450607 12615680 22
3.0092399 -0.138739 -0.45327899 16777215 11
3.6498101 -0.138739 -0.45327899 12615680 22
1.806373 -0.128683 -0.45327899 12615680 22
1.832188 -0.122811 -0.45327899 12615680 22
1.858003 -0.114542 -0.45327899 12615680 22
1.8644021 -0.112924 -0.45327899 12615680 22
1.883818 -0.112441 -0.45342335 12615680 22
1.909633 -0.112924 -0.451462 12615680 22
1.9354481 -0.112924 -0.45100999 12615680 22
1.9612629 -0.112924 -0.452539 12615680 22
1.972553 -0.112924 -0.45327899 12615680 22
1.987078 -0.116306 -0.45565498 12615680 22
2.038708 -0.112924 -0.45996001 12615680 22
2.5033779 -0.112924 -0.45949501 12615680 22
2.5291929 -0.112924 -0.45775899 12615680 22
2.5550079 -0.112924 -0.45668501 12615680 22
2.5808229 -0.112924 -0.45586401 12615680 22
2.606638 -0.112924 -0.455035 12615680 22
2.632453 -0.112924 -0.45392001 12615680 22
2.6498239 -0.112924 -0.45327899 12615680 22
2.658268 -0.112924 -0.452445 12615680 22
3.0027621 -0.112924 -0.45327899 16777215 11
3.6493449 -0.112924 -0.45327899 12615680 22
3.6908691 -0.112924 -0.450697 12615680 22
1.909633 -0.108655 -0.45327899 12615680 22
1.9354481 -0.104538 -0.45327899 12615680 22
1.9612629 -0.107705 -0.45327899 12615680 22
2.658268 -0.101545 -0.45327899 12615680 22
2.5550079 -0.087108999 -0.458655 12615680 22
2.5808229 -0.087108999 -0.456689 12615680 22
2.606638 -0.087108999 -0.45589 12615680 22
2.632453 -0.087108999 -0.45463201 12615680 22
2.658268 -0.087108999 -0.45387399 12615680 22
2.6666069 -0.087108999 -0.45327899 12615680 22
2.684083 -0.087108999 -0.45096701 12615680 22
2.9951661 -0.087108999 -0.45246601 11509631 19
3.651855 -0.087108999 -0.45327899 12615680 22
3.6908691 -0.087108999 -0.45171699 12615680 22
2.9938641 -0.074808002 -0.45327899 6307840 22
3.7166841 -0.073636003 -0.45327899 12615680 22
2.5808229 -0.061294001 -0.45967099 12615680 22
2.606638 -0.061294001 -0.45773199 12615680 22
2.632453 -0.061294001 -0.45645899 12615680 22
2.658268 -0.061294001 -0.45496699 12615680 22
2.6847565 -0.061774999 -0.45330799 12615680 22
2.709898 -0.061294001 -0.451974 12615680 22
2.9925442 -0.061294001 -0.45452851 6307840 19
3.6557691 -0.061294001 -0.45327899 12615680 22
3.671077 -0.061294001 -0.45327899 6307840 22
3.6908691 -0.063842997 -0.453632 9461760 22
3.7180729 -0.061294001 -0.4563255 12615680 22
2.606638 -0.035479002 -0.45928001 12615680 22
2.632453 -0.035479002 -0.45785001 12615680 22
2.658268 -0.035479002 -0.45562199 12615680 22
2.684083 -0.035479002 -0.45417401 12615680 22
2.7052841 -0.035479002 -0.45299947 12615680 22
2.735713 -0.035479002 -0.45076001 12615680 22
2.981739 -0.035479002 -0.45327899 6307840 19
3.6392391 -0.035479002 -0.45803601 12615680 22
3.6561511 -0.035479002 -0.45327899 12615680 22
3.6650541 -0.035479002 -0.45169401 12615680 22
3.689055 -0.035479002 -0.45327899 12615680 12
3.6908691 -0.035479002 -0.45671901 6307840 22
3.7197919 -0.035479002 -0.45327899 12615680 12
2.709898 -0.019378999 -0.45327899 12615680 22
2.632453 -0.009664 -0.45888901 12615680 22
2.658268 -0.009664 -0.45655701 12615680 22
2.684083 -0.009664 -0.45485201 12615680 22
2.709898 -0.009664 -0.453655 12615680 22
2.717309 -0.009664 -0.45327899 12615680 22
2.735713 -0.009664 -0.452369 12615680 22
2.761528 -0.009664 -0.45150301 12615680 22
2.9686153 -0.0083803339 -0.45309797 6307840 19
3.6392391 -0.009664 -0.454211 12615680 22
3.6469309 -0.009664 -0.45327899 12615680 22
3.6650541 -0.009664 -0.45198199 12615680 22
3.671788 -0.009664 -0.45327899 12615680 12
3.6908691 -0.009664 -0.45943499 12615680 22
3.7169476 -0.009664 -0.45475698 12615680 12
2.735713 0.0099609997 -0.45327899 12615680 22
3.6650541 0.0038449999 -0.45327899 12615680 22
2.658268 0.016151 -0.459831 12615680 22
2.684083 0.016151 -0.456438 12615680 22
2.709898 0.016151 -0.45474401 12615680 22
2.735713 0.016151 -0.45353001 12615680 22
2.742125 0.016151 -0.45327899 12615680 22
2.761528 0.016151 -0.452609 12615680 22
2.787344 0.016151 -0.45187801 12615680 22
2.813159 0.016151 -0.451278 12615680 22
2.916419 0.016151 -0.45036501 12615680 22
2.942234 0.016151 -0.45111999 12615680 22
2.9569421 0.016151 -0.45327899 12615680 19
2.968049 0.016151 -0.45664501 12615680 19
3.6392391 0.016151 -0.45381501 12615680 22
3.6650541 0.016151 -0.45464101 6307840 12
3.7173829 0.016151 -0.45327899 12615680 12
2.761528 0.026943 -0.45327899 12615680 22
2.942234 0.029332001 -0.45327899 12615680 22
2.709898 0.041965999 -0.456772 12615680 22
2.735713 0.041965999 -0.45552 12615680 22
2.761528 0.041965999 -0.454285 12615680 22
2.7877865 0.04182167 -0.45328602 12615680 22
2.813159 0.045104999 -0.45313901 12615680 22
2.838974 0.045288 -0.4529385 12615680 22
2.864789 0.044181999 -0.45298851 12615680 22
2.890604 0.043890499 -0.45298702 12615680 22
2.9149644 0.041494668 -0.45334467 12615680 22
2.942234 0.041965999 -0.45561701 12615680 22
3.6392391 0.041965999 -0.45439401 12615680 22
3.6650541 0.041965999 -0.456994 6307840 22
3.7176681 0.041965999 -0.45327899 12615680 12
3.7166841 0.059432998 -0.45327899 12615680 12
2.735713 0.067781001 -0.45813799 12615680 22
2.761528 0.067781001 -0.45657599 12615680 22
2.787344 0.067781001 -0.455044 12615680 22
2.813159 0.067781001 -0.45457 12615680 22
2.838974 0.067781001 -0.455311 12615680 22
2.864789 0.067781001 -0.45566201 12615680 22
2.890604 0.067781001 -0.45622 12615680 22
2.916419 0.067781001 -0.45826399 12615680 22
3.0713091 0.067781001 -0.45763201 16777215 11
3.0971241 0.067781001 -0.45793101 16777215 11
3.6392391 0.067781001 -0.455735 12615680 22
3.7155161 0.067781001 -0.45485899 12615680 12
3.0713091 0.070270002 -0.45327899 16777215 11
3.0971241 0.070090003 -0.45327899 16777215 11
3.1155629 0.077691004 -0.45686999 16777215 11
2.813159 0.093595996 -0.45948699 12615680 22
2.838974 0.093595996 -0.45881701 12615680 22
2.864789 0.093595996 -0.45851901 12615680 22
2.890604 0.093595996 -0.45872599 12615680 22
3.0454941 0.093595996 -0.454687 12615680 22
3.0504079 0.093595996 -0.45327899 12615680 22
3.167906 0.093595996 -0.45327899 16777215 11
3.1745689 0.093673997 -0.45573598 16777215 11
3.6392391 0.093595996 -0.459178 6307840 22
3.704401 0.093595996 -0.45327899 12615680 12
3.0713091 0.11500899 -0.45551598 12615680 22
3.093785 0.119411 -0.45244098 12615680 22
3.1763248 0.119411 -0.4527185 6307840 19
3.6958649 0.119411 -0.45327899 12615680 12
3.0971241 0.121234 -0.45327899 12615680 22
3.1229391 0.128479 -0.45327899 12615680 22
3.1487539 0.12988099 -0.45327899 12615680 22
3.1745689 0.122648 -0.45327899 6307840 12
3.6899741 0.145226 -0.45327899 12615680 12
3.6908691 0.1444415 -0.45385551 12615680 12
3.67785 0.171041 -0.45327899 12615680 12
3.669167 0.19685601 -0.45327899 12615680 12
3.66517 0.22375166 -0.45383167 12615680 12
3.65836 0.248487 -0.45327899 16524 12
3.406904 0.266691 -0.45327899 12615680 3
3.432719 0.26770401 -0.45327899 16777215 11
3.3948951 0.27430201 -0.45327899 8022323 3
3.4474771 0.27430201 -0.45327899 16777215 11
3.5870614 0.27285451 -0.45327899 2638439 12
3.6134241 0.272495 -0.45327899 4539470 12
3.629565 0.27430201 -0.45327899 6307840 12
3.6497209 0.27430201 -0.45327899 16524 12
3.381089 0.28106499 -0.45327899 1722745 3
3.458534 0.280274 -0.45327899 16777215 11
3.355274 0.29208401 -0.45327899 16524 3
3.484349 0.296027 -0.45327899 16777215 11
3.6392391 0.29209301 -0.45327899 16524 12
3.341325 0.30011699 -0.45327899 16524 3
3.490906 0.30011699 -0.45327899 16777215 11
3.573565 0.30011699 -0.45327899 16524 12
3.510164 0.31162599 -0.45327899 16777215 11
3.561794 0.31457099 -0.45327899 16524 12
3.3271718 0.32367551 -0.45327899 16524 3
3.535979 0.32142699 -0.45327899 16777215 11
3.317765 0.35174701 -0.45327899 16524 3
3.313134 0.37756199 -0.45327899 16524 3
3.310493 0.403377 -0.45327899 16524 3
3.3073139 0.42919201 -0.45327899 16524 3
3.3036439 0.44558099 -0.45327899 16524 3
3.2974081 0.45500699 -0.45327899 16524 3
3.288439 0.480822 -0.45327899 16524 3
3.282835 0.50663698 -0.45327899 16524 3
3.2781384 0.53377765 -0.45405635 16524 3
3.2652111 0.558267 -0.45327899 16524 3
3.258709 0.58408201 -0.45327899 16524 3
3.2525864 0.60989702 -0.45443699 16524 3
3.2520139 0.61618298 -0.45327899 16524 3
3.2458229 0.63571203 -0.45327899 16524 3
3.2520139 0.65629798 -0.45327899 16524 3
3.2526851 0.66152698 -0.455084 16524 3
3.432719 0.67853498 -0.45327899 16777215 11
3.458534 0.67825401 -0.45327899 16777215 11
3.2770176 0.68793046 -0.45327899 16524 3
3.406904 0.68221599 -0.45327899 16777215 11
3.485141 0.68687654 -0.45327899 6307840 12
3.3036439 0.69935399 -0.45327899 16777215 11
3.329459 0.69974297 -0.45327899 16777215 11
3.355274 0.69586402 -0.45327899 16777215 11
3.510164 0.70815903 -0.45327899 16524 12
3.515156 0.713157 -0.45327899 16524 12
3.5326121 0.73897201 -0.45327899 16524 12
3.519846 0.76478702 -0.45327899 16524 12
3.5150361 0.79060203 -0.45327899 16524 12
3.512064 0.81641698 -0.45327899 803203 12
3.5103641 0.84349298 -0.45327899 5051786 12
3.495893 0.868047 -0.45327899 4194432 12
3.4942811 0.89386201 -0.45327899 4194432 12
3.489996 0.91967702 -0.45327899 4194432 12
